# .PCD v0.7 - Point Cloud Data file format
VERSION 0.7
FIELDS x y z normal_x normal_y normal_z intensity curvature
SIZE 4 4 4 4 4 4 4 4
TYPE F F F F F F F F
COUNT 1 1 1 1 1 1 1 1
WIDTH 969
HEIGHT 1
VIEWPOINT 0 0 0 1 0 0 0
POINTS 969
DATA ascii
9.8005009 62.028244 -9.3928766 0 0 0 73.708771 13
-8.2581015 59.099064 -11.971267 0 0 0 25.104464 4.25
-9.5076771 58.786762 -12.024688 0 0 0 27.715921 6
-9.6198778 58.908165 -12.024392 0 0 0 29.270411 13
-9.7897282 58.94101 -11.938545 0 0 0 27.493 28
-8.2702227 59.112118 -11.894216 0 0 0 24.937868 2.5
-9.8122663 58.962681 -11.848351 0 0 0 27.26984 24
13.633221 62.379013 -11.670581 0 0 0 74.597839 9
7.2070942 61.426392 -11.440327 0 0 0 73.043823 1
4.2210712 61.058533 -11.4086 0 0 0 70.379852 3
3.7960885 60.968651 -11.42522 0 0 0 73.930977 2
2.9780464 60.755421 -11.356493 0 0 0 67.04998 4
2.8799715 60.821972 -11.366103 0 0 0 69.269775 2.5
2.7123053 60.734989 -11.35034 0 0 0 71.711777 3
2.441431 60.74181 -11.365418 0 0 0 70.380219 3.3333333
2.1353376 60.628025 -11.343621 0 0 0 73.487999 3
1.6159886 60.651058 -11.347254 0 0 0 70.380928 3
1.4553481 60.585167 -11.302087 0 0 0 63.053844 3
1.193023 60.550529 -11.291418 0 0 0 61.722836 3
1.057723 60.58477 -11.31866 0 0 0 67.161621 3
0.89169455 60.533333 -11.323931 0 0 0 72.599892 3
0 0 0 0 0 0 0 0
0.45116052 60.490314 -11.321856 0 0 0 78.675125 3.75
0.16261601 60.428905 -11.262319 0 0 0 62.093258 4
-0.61920065 60.345276 -11.269037 0 0 0 62.769135 10.428572
13.645 62.447308 -11.371525 0 0 0 74.819801 2
-0.012815706 60.377022 -11.232054 0 0 0 59.946774 5
-0.38060772 60.33606 -11.207972 0 0 0 51.283836 3
-1.2973771 60.327946 -11.098275 0 0 0 38.564762 3.6666667
-2.1570086 60.221947 -11.064325 0 0 0 30.380964 3
-2.3798122 60.081501 -11.018475 0 0 0 36.971489 3.6666667
-2.6466 60.027878 -11.012423 0 0 0 28.604984 5
-2.7047644 60.048897 -11.01438 0 0 0 22.105337 5.5
13.675525 62.497765 -11.225216 0 0 0 75.040817 2.5
9.658947 61.842819 -11.022235 0 0 0 71.267845 3
-2.5622239 60.077904 -10.984164 0 0 0 38.935902 1
-2.6845546 60.084606 -10.911799 0 0 0 26.134043 8.4117651
13.726439 62.583889 -10.980113 0 0 0 75.262787 3
11.867469 62.212685 -10.854141 0 0 0 74.37587 2
11.354173 62.226822 -10.956807 0 0 0 74.1539 2
10.939502 62.116699 -10.966083 0 0 0 71.489815 2
9.9177532 61.881592 -10.988366 0 0 0 74.1539 3
9.5592079 61.935909 -10.911552 0 0 0 74.430641 13
-2.6713524 60.099274 -10.758981 0 0 0 26.318516 14
9.5584145 61.913139 -10.787882 0 0 0 73.598862 15
-2.7070854 60.161449 -10.353215 0 0 0 10.163903 4
9.5629263 61.959652 -10.220373 0 0 0 72.377922 24
-2.7106147 60.223286 -10.089817 0 0 0 17.161964 5.25
9.586441 62.008961 -10.114586 0 0 0 72.599892 16
10.130316 62.358913 -9.1969147 0 0 0 73.930977 6.5
9.9946613 62.285866 -9.0879507 0 0 0 74.1539 6
9.5908289 62.32069 -9.138484 0 0 0 74.1539 6
9.5672274 62.339138 -9.0298738 0 0 0 74.264885 7
-8.2528706 59.291069 -11.981405 0 0 0 23.382902 5
-9.6927195 59.084419 -12.047404 0 0 0 28.492451 9.5
-9.8189268 59.084991 -11.950726 0 0 0 30.491947 26.5
13.114185 62.482742 -11.68235 0 0 0 74.597839 10
10.063029 62.075195 -11.539437 0 0 0 70.601936 7
3.1741917 61.018185 -11.408198 0 0 0 70.380608 3.3333333
3.0528722 61.096706 -11.422118 0 0 0 71.934937 3
2.5455081 61.023827 -11.412379 0 0 0 66.162827 4
2.4393544 60.992245 -11.410453 0 0 0 73.708771 3
2.2372546 60.941212 -11.396701 0 0 0 73.598389 2.5
2.0223298 60.834839 -11.377402 0 0 0 73.487999 3.5
1.8446057 60.848347 -11.398692 0 0 0 73.265793 3
1.467555 60.767471 -11.361723 0 0 0 70.269943 2.5
1.2188193 60.775936 -11.35443 0 0 0 67.772385 3
1.0350788 60.796967 -11.32858 0 0 0 60.612919 3
0.76837224 60.68861 -11.370799 0 0 0 77.592613 2.5
0 0 0 0 0 0 0 0
0.36083049 60.713654 -11.346555 0 0 0 72.008606 3
0.17312352 60.63168 -11.29853 0 0 0 62.388897 4
-0.6157288 60.540657 -11.307664 0 0 0 63.671406 8.4444447
0.17734872 60.642239 -11.289753 0 0 0 62.610867 4
-0.0084475642 60.630043 -11.284887 0 0 0 60.279964 4.75
-2.3882396 60.316265 -11.064245 0 0 0 33.713898 2.6666667
-2.5544224 60.249199 -11.058736 0 0 0 29.04892 2
10.224462 62.106644 -11.11029 0 0 0 73.930977 5
9.6204939 62.001633 -11.081303 0 0 0 75.262787 6
-2.4076693 60.37294 -11.039576 0 0 0 41.932819 2
-2.6969361 60.384018 -10.943335 0 0 0 37.823795 0
12.460958 62.599216 -11.012804 0 0 0 74.1539 4
11.752729 62.32695 -10.937615 0 0 0 71.489815 5
10.884034 62.250927 -11.053662 0 0 0 74.1539 3
13.771255 62.63419 -10.884124 0 0 0 75.484993 3
13.253709 62.737488 -10.924274 0 0 0 75.484993 17
9.8320303 62.379234 -9.5754919 0 0 0 73.376892 11.5
9.7651768 62.322319 -9.5755396 0 0 0 73.487999 8
-8.2486429 59.566795 -12.013018 0 0 0 31.268835 3
-8.2866802 59.460514 -11.999038 0 0 0 27.937889 5
-9.8126183 59.22641 -12.049165 0 0 0 26.381969 24
-9.8325596 59.243286 -11.99052 0 0 0 26.160002 30
-8.2956934 59.46986 -11.948015 0 0 0 27.937889 3
-9.8556395 59.262054 -11.93221 0 0 0 26.160002 21
13.423369 62.700775 -11.634184 0 0 0 74.597839 20
9.9267282 62.177555 -11.505115 0 0 0 74.597839 29
9.555315 62.22868 -11.586999 0 0 0 74.597839 10
7.7316909 61.973598 -11.520633 0 0 0 73.265793 1
3.970253 61.290207 -11.478648 0 0 0 73.930977 3
3.7779417 61.33548 -11.481265 0 0 0 73.930977 3
2.7354438 61.164345 -11.446809 0 0 0 69.158791 3
2.6364644 61.273655 -11.45425 0 0 0 66.384789 4
1.9110347 61.091824 -11.445824 0 0 0 73.487999 3
1.7217467 61.081856 -11.438198 0 0 0 70.601936 3.5
1.3882859 61.020031 -11.392362 0 0 0 62.499882 3
1.1791298 60.952541 -11.375752 0 0 0 65.718887 3
0.94645339 60.904213 -11.39397 0 0 0 72.821854 2
0.7953527 60.887878 -11.401708 0 0 0 77.814941 2.5
0.56332803 60.886726 -11.399711 0 0 0 77.482315 3.4000001
0 0 0 0 0 0 0 0
0.18576536 60.941635 -11.36207 0 0 0 62.610867 4
-0.61001772 60.764725 -11.348016 0 0 0 64.731842 8.5555553
13.455567 62.751747 -11.49036 0 0 0 74.819801 19
9.9426975 62.212791 -11.395745 0 0 0 74.819801 9
-0.0024647224 60.872612 -11.330265 0 0 0 60.612919 4
-0.99635613 60.767418 -11.222679 0 0 0 51.450134 3.75
-1.3787152 60.655979 -11.16295 0 0 0 37.934837 4.75
-2.2700694 60.530449 -11.12353 0 0 0 30.084929 2.6666667
-2.4633343 60.50346 -11.093758 0 0 0 29.271841 2
13.45301 62.781067 -11.341284 0 0 0 75.040817 12
10.736665 62.492222 -11.270593 0 0 0 73.930977 3
9.96068 62.250465 -11.286543 0 0 0 75.040817 6
9.5786304 62.32893 -11.192715 0 0 0 75.151802 16
13.303784 62.737465 -11.076321 0 0 0 75.262787 12
11.762959 62.501106 -11.095863 0 0 0 74.1539 1
-8.2491426 59.711384 -12.058751 0 0 0 28.049351 2.5
-9.7998238 59.506054 -12.16814 0 0 0 26.381969 6
-9.9099293 59.436691 -12.052718 0 0 0 23.160816 21
-8.2577887 59.721996 -11.981666 0 0 0 27.937889 3
-9.8979034 59.440296 -11.953401 0 0 0 23.049831 17
13.053683 62.863041 -11.760204 0 0 0 73.487999 12
9.7524548 62.411312 -11.555576 0 0 0 74.597839 61
6.4298201 61.957329 -11.539969 0 0 0 74.37587 1
3.9054344 61.584946 -11.513519 0 0 0 74.1539 2
3.3591435 61.476337 -11.491146 0 0 0 69.713951 2.5
3.0890131 61.457348 -11.501891 0 0 0 67.04998 3
2.9463606 61.406208 -11.482808 0 0 0 70.158165 2.6666667
2.6760757 61.381493 -11.456788 0 0 0 66.384789 3
2.548635 61.305172 -11.470701 0 0 0 73.708771 2
2.1460502 61.250484 -11.458278 0 0 0 73.708771 3
1.9814693 61.344028 -11.472459 0 0 0 73.708771 2
1.5993611 61.264935 -11.4558 0 0 0 65.108475 3
1.0975745 61.197834 -11.413865 0 0 0 60.7239 2.5
0.9312889 61.196667 -11.465652 0 0 0 78.036903 2.5
0 0 0 0 0 0 0 0
0 0 0 0 0 0 0 0
0.38359988 61.05397 -11.416252 0 0 0 72.266937 2.5
0.1893463 60.986099 -11.36578 0 0 0 62.832832 4
-0.61156726 60.962959 -11.38694 0 0 0 65.385429 9
9.7252178 62.417057 -11.40228 0 0 0 74.819801 15
1.1055491 61.21566 -11.381426 0 0 0 61.05685 2
0.19244561 61.011307 -11.364208 0 0 0 62.832832 3
0.0040695244 61.047836 -11.356237 0 0 0 60.945869 3
-1.0684506 60.927727 -11.249188 0 0 0 49.193478 4.3000002
-1.4466397 60.904354 -11.198071 0 0 0 37.046432 5
-2.3553147 60.756073 -11.140382 0 0 0 29.714823 2
-2.3745065 60.814869 -11.17477 0 0 0 29.93679 3
11.46957 62.672623 -11.221713 0 0 0 73.930977 5
9.6928177 62.404194 -11.322643 0 0 0 75.040817 23
9.7065401 62.514309 -10.885634 0 0 0 75.707909 6
9.7092676 62.589931 -10.593694 0 0 0 76.152802 4
-9.8666639 59.601349 -12.115843 0 0 0 25.271255 15
-9.8920431 59.651257 -12.023452 0 0 0 24.604916 21.5
13.348349 63.081158 -11.711752 0 0 0 73.487999 18
9.4092054 62.480385 -11.641616 0 0 0 74.597839 9
4.2422285 61.794743 -11.539951 0 0 0 74.1539 1
3.2311482 61.655022 -11.517741 0 0 0 69.603439 1.5
2.6592801 61.622131 -11.529994 0 0 0 73.930977 2
2.4051905 61.461739 -11.502525 0 0 0 73.708771 2
1.8135002 61.449787 -11.498441 0 0 0 70.82486 3.5
1.6116552 61.422066 -11.495092 0 0 0 70.601936 3
1.2638782 61.368969 -11.462169 0 0 0 64.535301 3
0.8093335 61.320606 -11.471054 0 0 0 73.043823 2
0 0 0 0 0 0 0 0
0.40309256 61.320175 -11.463668 0 0 0 72.599892 3
0.20099692 61.299408 -11.432032 0 0 0 63.053844 5
-0.610506 61.130322 -11.41674 0 0 0 66.051842 8
13.419494 63.159458 -11.574247 0 0 0 73.708771 19
9.5522919 62.650757 -11.455153 0 0 0 74.819801 74
0.2069184 61.334499 -11.423903 0 0 0 63.277004 3
0.20183563 61.216415 -11.401547 0 0 0 63.053844 3
-1.0737586 61.143784 -11.312922 0 0 0 50.56089 4.75
-1.4901659 61.06279 -11.217459 0 0 0 36.453884 4.6666665
-2.4096048 60.904606 -11.16671 0 0 0 29.492855 2
13.434813 63.21154 -11.377761 0 0 0 73.930977 19.5
9.5205889 62.636974 -11.376296 0 0 0 75.040817 18
9.4984474 62.63998 -11.263633 0 0 0 75.151802 17
-1.5152034 61.109791 -11.192329 0 0 0 35.269978 2
13.283983 63.140739 -11.209672 0 0 0 74.1539 14
9.5904846 62.890362 -10.590792 0 0 0 76.152802 6
12.95188 63.595245 -9.4510756 0 0 0 73.487999 7
-8.3212214 60.049469 -12.099592 0 0 0 27.937889 5
-9.7629595 59.837109 -12.202826 0 0 0 25.345245 9.666667
-9.937727 59.822067 -12.130141 0 0 0 24.604916 25.5
-9.9531183 59.840462 -12.037963 0 0 0 24.492979 20
6.1553044 62.363487 -11.630682 0 0 0 74.37587 1
5.856091 62.335018 -11.639434 0 0 0 72.821854 2
4.1451187 62.053234 -11.600486 0 0 0 74.1539 0
2.8302329 61.807327 -11.541594 0 0 0 66.605804 3
2.0917444 61.75304 -11.559915 0 0 0 73.708771 3
1.8939612 61.774754 -11.553998 0 0 0 71.046829 2
1.7027229 61.734928 -11.537724 0 0 0 65.9403 3
1.4449944 61.570049 -11.52306 0 0 0 70.380928 3
1.2638497 61.678165 -11.533896 0 0 0 70.158958 2
1.1017095 61.579899 -11.505997 0 0 0 67.050339 2.5
0.69372779 61.509506 -11.519794 0 0 0 78.647316 3.25
0 0 0 0 0 0 0 0
-0.61266494 61.431267 -11.47118 0 0 0 67.04998 6
0.010473927 61.466145 -11.440508 0 0 0 61.389805 3
-1.1402047 61.314568 -11.345745 0 0 0 48.837898 6
-2.4719596 61.07346 -11.187014 0 0 0 29.271841 0
-2.8424966 61.093838 -11.100885 0 0 0 39.26897 0
9.6982555 62.878551 -11.042972 0 0 0 75.484993 10
9.6267471 62.796478 -11.104707 0 0 0 75.484993 6
-2.8133752 61.184937 -10.649511 0 0 0 35.269978 0
9.6160755 62.894489 -10.666403 0 0 0 76.152802 8
-8.3099203 60.170719 -12.15243 0 0 0 31.490803 3
-9.9255791 60.038601 -12.216216 0 0 0 23.049831 14
-9.9854488 60.079967 -12.167966 0 0 0 23.049831 29
-8.3189888 60.179935 -12.101968 0 0 0 31.490803 3
-9.9978876 60.093586 -12.107115 0 0 0 22.825956 26
13.516412 63.524731 -11.893109 0 0 0 72.156433 16
5.4378772 62.355457 -11.621895 0 0 0 69.047928 1
4.7048631 62.194214 -11.610985 0 0 0 74.37587 1
3.2376308 62.042477 -11.601571 0 0 0 72.045441 2
1.5464067 61.799557 -11.536498 0 0 0 62.832832 2
0 0 0 0 0 0 0 0
0 0 0 0 0 0 0 0
-0.62026227 61.561749 -11.501129 0 0 0 67.27195 6
13.606692 63.531261 -11.615198 0 0 0 71.046829 20
1.1993206 61.826481 -11.515907 0 0 0 61.167835 2
0.023887824 61.692135 -11.453135 0 0 0 61.945915 2
-0.60756469 61.514606 -11.479343 0 0 0 67.493919 6
-0.89197171 61.599068 -11.423946 0 0 0 61.871212 2.6666667
-1.590084 61.478081 -11.297854 0 0 0 35.824894 4.75
13.52585 63.624134 -11.442437 0 0 0 72.599411 11
-2.7099459 61.489017 -10.502645 0 0 0 34.601929 1
-2.8887515 61.409966 -10.632998 0 0 0 34.824848 0
-2.6434088 61.376991 -10.430733 0 0 0 34.15799 0
-8.4323339 60.429985 -12.180667 0 0 0 27.937889 4
-9.7283459 60.217899 -12.325087 0 0 0 23.271799 5
-9.8592672 60.152763 -12.275536 0 0 0 26.381969 7
-9.9853067 60.237804 -12.214432 0 0 0 26.160002 19
-10.061231 60.290051 -12.170199 0 0 0 26.160002 30
13.55858 63.682716 -11.840755 0 0 0 73.487999 22
6.4533782 62.775002 -11.681124 0 0 0 74.597839 1
5.7360811 62.573257 -11.670717 0 0 0 72.821854 2
5.1365004 62.487202 -11.662726 0 0 0 72.821854 0
4.5729461 62.40583 -11.659343 0 0 0 74.37587 0
3.8485343 62.407669 -11.667749 0 0 0 72.377922 2
3.5925086 62.356133 -11.662149 0 0 0 72.155952 2
2.8527393 62.176727 -11.621177 0 0 0 74.1539 0
2.6042509 62.078548 -11.615326 0 0 0 73.930977 2
2.2021849 62.162476 -11.64523 0 0 0 73.930977 2
1.7783545 62.124004 -11.613409 0 0 0 68.530556 2.3333333
1.5215414 61.958626 -11.58958 0 0 0 70.601936 3
0.84258062 61.92963 -11.611699 0 0 0 78.925369 2
-0.63041079 61.768951 -11.546286 0 0 0 67.493912 6
13.542956 63.702267 -11.686875 0 0 0 73.708771 28
1.8035208 62.12785 -11.577153 0 0 0 63.942909 0
1.3964127 61.947506 -11.540634 0 0 0 62.166927 1
0.23698798 61.922684 -11.511511 0 0 0 63.942909 0
-0.60265243 61.726265 -11.506406 0 0 0 68.529922 3
13.512975 63.71233 -11.531333 0 0 0 73.930977 24
-1.6386806 61.628807 -11.28971 0 0 0 34.602547 2.4000001
-2.8595459 61.50869 -11.153327 0 0 0 32.973148 3.4166667
-2.88239 61.570644 -11.128048 0 0 0 27.196167 11.333333
-2.8569856 61.545536 -10.997705 0 0 0 39.046242 12.6875
-2.8851945 61.596691 -11.048449 0 0 0 26.470804 15.7
-2.8314083 61.570171 -10.800203 0 0 0 37.268429 12.4375
-2.7789295 61.572174 -10.61566 0 0 0 35.60284 3.5714285
-2.9400826 61.619488 -10.568815 0 0 0 33.991158 0.25
-2.8498898 61.698429 -10.374091 0 0 0 32.425499 7
-2.9060287 61.677387 -10.43676 0 0 0 32.775803 4.1111112
-2.8347042 61.686443 -10.287729 0 0 0 31.446646 2.4000001
-9.8934002 60.325905 -12.308823 0 0 0 23.049831 9
-10.030107 60.419453 -12.250485 0 0 0 22.937893 23
-10.075532 60.4631 -12.101923 0 0 0 22.603989 11
-12.042164 60.277512 -11.917641 0 0 0 29.714823 3
13.555142 63.933636 -11.817131 0 0 0 70.82486 56
6.1992064 62.82906 -11.713588 0 0 0 73.043823 1
3.9158347 62.557026 -11.669894 0 0 0 72.377922 1
3.6534085 62.499252 -11.664856 0 0 0 72.377922 0
2.0449743 62.391209 -11.671319 0 0 0 71.267845 2
1.5619482 62.16465 -11.624496 0 0 0 70.601936 1
1.341652 62.152122 -11.641942 0 0 0 70.158958 3
0 0 0 0 0 0 0 0
13.565931 63.96209 -11.717723 0 0 0 71.046829 19
13.563161 63.981213 -11.61613 0 0 0 71.046829 16
0.031709179 62.050705 -11.511474 0 0 0 62.499882 0
-0.17701299 62.018299 -11.488108 0 0 0 59.946774 0
-0.61043942 61.872177 -11.537948 0 0 0 68.714859 3.5
-0.91946322 61.872059 -11.489169 0 0 0 62.277912 2.75
-1.6693876 61.781643 -11.336505 0 0 0 34.824848 4
13.546878 63.990742 -11.512728 0 0 0 71.267845 9
-2.930299 61.738468 -10.444069 0 0 0 32.714485 4.5
-8.4914799 60.780361 -12.278365 0 0 0 26.603937 4
-9.9442253 60.587265 -12.353866 0 0 0 28.826235 8
-10.038259 60.604088 -12.263794 0 0 0 27.493 29
-8.4973469 60.787338 -12.226646 0 0 0 26.381969 4
-10.089465 60.645821 -12.181283 0 0 0 27.38142 12
-11.881327 60.382236 -11.893131 0 0 0 25.272846 2
-12.259995 60.399906 -11.882823 0 0 0 29.492855 2
6.1157742 63.146431 -11.763494 0 0 0 73.043823 0
5.7376199 63.013611 -11.760734 0 0 0 72.821854 0
3.4644766 62.608654 -11.699942 0 0 0 72.155952 2
2.7809622 62.626667 -11.702429 0 0 0 74.1539 0
1.8499897 62.497498 -11.6766 0 0 0 71.046829 1
1.6299583 62.508595 -11.67401 0 0 0 70.82486 0
13.538128 64.181908 -11.731344 0 0 0 73.708771 37
13.52133 64.148529 -11.829721 0 0 0 73.708771 38
1.8639232 62.397968 -11.624425 0 0 0 63.942909 0
0.031037664 62.275196 -11.567356 0 0 0 62.388897 1
-0.91525632 62.156254 -11.537334 0 0 0 64.120293 2
-0.93696505 62.060192 -11.533501 0 0 0 62.499878 3.5
-1.8979187 62.01659 -11.434299 0 0 0 16.826868 2.5
13.547882 64.210373 -11.631821 0 0 0 73.930977 10
-1.4716076 62.034473 -11.341997 0 0 0 36.601784 1
-1.751971 62.113499 -11.38501 0 0 0 34.15799 2
-2.7606969 61.873035 -11.170885 0 0 0 27.26984 0
-2.8210402 62.155125 -10.322784 0 0 0 32.159805 0
-9.9670572 60.768444 -12.345817 0 0 0 29.862564 18.666666
-10.068173 60.787697 -12.23869 0 0 0 30.8249 25
-12.093575 60.482895 -12.012335 0 0 0 25.494814 2
13.501769 64.35508 -11.968068 0 0 0 70.82486 58
5.5097418 63.10886 -11.773015 0 0 0 72.821854 0
3.6292377 63.020531 -11.770604 0 0 0 72.377922 0
1.4165486 62.586746 -11.709655 0 0 0 70.491432 2
13.508492 64.391029 -11.817297 0 0 0 70.935844 45
1.9376718 62.729057 -11.685529 0 0 0 64.164879 0
1.6994944 62.558548 -11.672495 0 0 0 63.277004 1
1.3200414 62.603142 -11.67087 0 0 0 61.50079 1
0.25630805 62.40377 -11.59789 0 0 0 64.386848 0.5
-0.18054423 62.43766 -11.564156 0 0 0 60.316959 0
-0.62664378 62.282024 -11.618201 0 0 0 69.492584 2.75
-0.93335629 62.387074 -11.587897 0 0 0 64.553314 2
-1.9357957 62.153351 -11.450208 0 0 0 16.494392 2
-1.5234179 62.311508 -11.407336 0 0 0 36.74992 2
-1.7661543 62.162067 -11.383178 0 0 0 33.757637 2
-2.8530653 62.124195 -11.26004 0 0 0 27.715921 0
-2.8485539 62.202736 -10.345179 0 0 0 32.381775 0
-8.5428333 61.147511 -12.370843 0 0 0 26.603937 3
-10.023523 61.002144 -12.403422 0 0 0 29.381393 9.5
-10.102633 60.982578 -12.336961 0 0 0 27.493 19
-8.5608606 61.16423 -12.323058 0 0 0 26.381969 4
-10.121428 61.000729 -12.277821 0 0 0 27.493 12
-12.005867 60.796928 -12.030111 0 0 0 25.383831 2
-12.467403 60.70166 -11.93047 0 0 0 25.272846 1
13.50204 64.600586 -12.026754 0 0 0 73.487999 38
5.9819965 63.403713 -11.806866 0 0 0 73.043823 0
13.504102 64.632942 -11.874896 0 0 0 73.708771 17
1.7611293 62.862644 -11.717505 0 0 0 63.387989 1
1.3407855 62.729973 -11.684572 0 0 0 61.50079 0
0.26767746 62.733322 -11.664119 0 0 0 64.60881 0
0.040970899 62.683884 -11.625157 0 0 0 63.053844 0
-0.63859504 62.503994 -11.665338 0 0 0 69.714783 2
-0.93879223 62.50272 -11.609925 0 0 0 64.996658 1.875
-2.0074506 62.433105 -11.505604 0 0 0 16.272427 2
-1.5468594 62.421619 -11.426617 0 0 0 36.490879 2.1666667
-1.8449361 62.49556 -11.442187 0 0 0 33.268929 2
-2.913173 62.29248 -11.284689 0 0 0 27.493 0
-8.6073132 61.39201 -12.415473 0 0 0 22.825956 5
-9.8757963 61.160229 -12.454235 0 0 0 27.715921 6
-10.098214 61.137039 -12.386574 0 0 0 31.046867 19
-8.6132736 61.398918 -12.363399 0 0 0 22.603989 4
-10.155499 61.181915 -12.338409 0 0 0 30.8249 30
4.3004622 63.402035 -11.844547 0 0 0 72.599892 2
3.8596799 63.326317 -11.81924 0 0 0 67.493919 0
1.9963063 63.167747 -11.801854 0 0 0 71.267845 1
1.7225195 62.99361 -11.7769 0 0 0 71.046829 0
1.4934353 63.041233 -11.787567 0 0 0 70.713394 1.5
0 0 0 0 0 0 0 0
1.7264551 63.005852 -11.758759 0 0 0 71.046829 0
1.5759462 62.956558 -11.728842 0 0 0 62.610867 1
0.036704507 62.73418 -11.655221 0 0 0 62.832832 1
-0.18580012 62.850697 -11.643059 0 0 0 60.686909 0
-0.64502764 62.629303 -11.69132 0 0 0 69.936989 3
-0.95440394 62.770054 -11.663215 0 0 0 65.829872 2
-2.0413175 62.559784 -11.523747 0 0 0 16.050457 2.5
-1.5812529 62.566528 -11.443036 0 0 0 35.713913 2
-1.8648944 62.579369 -11.455629 0 0 0 33.212959 2
-8.5738211 61.515522 -12.450759 0 0 0 26.603937 4
-10.063747 61.375294 -12.4791 0 0 0 29.492378 11
-10.161346 61.37236 -12.410078 0 0 0 27.493 18
-8.5828657 61.524834 -12.400195 0 0 0 26.381969 2
-10.173569 61.386219 -12.349183 0 0 0 27.493 11
-11.943961 61.124462 -12.093653 0 0 0 25.383831 1.5
-12.421237 61.043789 -11.998684 0 0 0 25.272846 2
13.456575 64.806053 -12.069769 0 0 0 70.713394 15
13.457272 64.837227 -11.917707 0 0 0 70.82486 14
2.0743341 63.342918 -11.79078 0 0 0 64.386848 0
1.4133126 63.191441 -11.761531 0 0 0 61.722996 0
0.28183901 63.130409 -11.740155 0 0 0 64.83078 0
0.04044158 63.014217 -11.705716 0 0 0 62.943336 0.5
-0.96159345 62.869835 -11.683813 0 0 0 65.940857 1
-2.093806 62.75959 -11.55559 0 0 0 15.79086 2
-1.6285053 62.812012 -11.498209 0 0 0 35.713909 2
-1.9188977 62.801292 -11.483834 0 0 0 32.647942 1.8
-2.9606433 62.906437 -10.482315 0 0 0 34.15799 1.5
-10.15515 61.524399 -12.476633 0 0 0 31.046867 19
-10.206724 61.569241 -12.394931 0 0 0 30.935883 26
-12.243402 61.315414 -12.042051 0 0 0 25.272846 1
4.5458636 63.94315 -11.937338 0 0 0 72.599892 1
3.92731 63.766018 -11.920745 0 0 0 72.377922 0
1.8704304 63.411415 -11.82048 0 0 0 63.498974 1
1.6090808 63.425938 -11.834038 0 0 0 66.828842 0.5
1.4592834 63.482243 -11.803349 0 0 0 61.945915 0
0.2803894 63.158993 -11.75828 0 0 0 64.60881 0
0.044374462 63.232243 -11.740074 0 0 0 63.277004 0
-0.19020322 63.160042 -11.70248 0 0 0 60.834885 0
-0.66379219 63.033802 -11.77101 0 0 0 70.491432 2
-0.9760412 63.01997 -11.718052 0 0 0 66.162819 1.6666666
-1.6747708 63.027901 -11.533163 0 0 0 35.214481 1.75
-1.9775016 63.051548 -11.525791 0 0 0 32.381775 2
-2.1334541 62.910419 -11.578311 0 0 0 15.495777 2
-2.8779578 63.009186 -11.239433 0 0 0 16.472101 8
-2.8803129 62.992977 -11.289536 0 0 0 16.961527 8.6000004
-2.8711634 63.014137 -11.191831 0 0 0 16.013304 7.6666665
-2.9944072 62.9809 -10.505768 0 0 0 34.296631 1.5
-10.174677 61.737686 -12.567586 0 0 0 27.715921 12
-10.241935 61.794537 -12.491059 0 0 0 27.493 21
-8.6515093 61.944843 -12.486022 0 0 0 26.381969 3
-10.254052 61.808498 -12.430039 0 0 0 27.493 17
-12.091726 61.591972 -12.167074 0 0 0 25.346834 2.3333333
-12.982646 61.367928 -12.02858 0 0 0 25.051832 2
-13.803831 61.431782 -12.013287 0 0 0 25.051832 1
4.2676563 63.937244 -11.951055 0 0 0 72.599892 0
2.117517 63.727592 -11.917849 0 0 0 71.489815 0
0 0 0 0 0 0 0 0
2.3924532 63.811646 -11.905432 0 0 0 71.711777 0
0.29527351 63.538273 -11.822634 0 0 0 64.941284 0.5
-0.19128731 63.380352 -11.735777 0 0 0 61.167835 0
-0.98241657 63.203518 -11.748941 0 0 0 66.827774 1
-2.1843112 63.108837 -11.615167 0 0 0 15.384316 2
-2.8922129 63.008774 -11.35326 0 0 0 17.551125 7.75
-2.8743765 63.045216 -11.162951 0 0 0 15.64312 6.6666665
-10.222322 61.93494 -12.567968 0 0 0 31.268835 12
-10.287237 61.991287 -12.490333 0 0 0 31.046867 16
4.1225529 64.255478 -12.00272 0 0 0 72.599892 0
1.8750228 63.789467 -11.932416 0 0 0 71.267845 0
0 0 0 0 0 0 0 0
4.3452063 64.121513 -11.955548 0 0 0 72.599892 0
2.2000649 63.908577 -11.878161 0 0 0 64.60881 0
0 0 0 0 0 0 0 0
0.30358997 63.744316 -11.854933 0 0 0 65.051796 1
0.048051216 63.664398 -11.824813 0 0 0 63.498974 0
-0.19456059 63.682579 -11.787408 0 0 0 61.50079 0
-1.0110431 63.493347 -11.815107 0 0 0 67.12397 1
-1.757125 63.41106 -11.589294 0 0 0 34.068916 2
-2.0538874 63.37822 -11.577159 0 0 0 31.862577 1.3333334
-2.2617915 63.410648 -11.668636 0 0 0 15.049934 2
-10.171667 62.102486 -12.630158 0 0 0 26.160002 10
-10.285417 62.195457 -12.600181 0 0 0 26.160002 20
-8.6504021 62.499989 -12.520202 0 0 0 32.048344 1.5
-8.7075357 62.380241 -12.55179 0 0 0 28.049351 3
-10.323381 62.23214 -12.514867 0 0 0 25.937796 17.5
-13.737248 61.801174 -12.08728 0 0 0 25.051832 1
4.2741933 64.333 -12.028622 0 0 0 67.715881 0
4.3359699 64.485886 -12.024727 0 0 0 67.715881 0
2.2562561 64.169403 -11.966779 0 0 0 64.386848 0
1.9429314 64.135757 -11.97076 0 0 0 71.489815 0
1.6860212 64.030273 -11.950077 0 0 0 69.103836 0.5
-1.017242 63.656399 -11.841603 0 0 0 67.760468 1.6
-1.8102124 63.668976 -11.632492 0 0 0 33.490894 2
-2.0890939 63.542755 -11.628439 0 0 0 32.159805 2
-8.7503433 62.595097 -12.635827 0 0 0 32.159805 3
1.5723333 64.21994 -11.950127 0 0 0 62.166927 0
-0.2030693 64.081558 -11.872771 0 0 0 61.50079 0
-1.0461047 63.850018 -11.895796 0 0 0 67.327858 2
-2.3286166 63.671741 -11.715352 0 0 0 14.901956 1.6666666
-10.303586 62.599972 -12.730353 0 0 0 26.160002 9.5
-8.6848154 62.755733 -12.603534 0 0 0 28.049351 2
-12.572967 62.315392 -12.241517 0 0 0 26.603937 1
-13.034865 62.195538 -12.20969 0 0 0 25.051832 2
2.2713666 64.434402 -12.040605 0 0 0 71.711777 0
2.0871601 64.501785 -12.012654 0 0 0 63.831451 0
0 0 0 0 0 0 0 0
0.3216767 64.252693 -11.946288 0 0 0 65.384987 0
-0.20112713 64.139908 -11.869393 0 0 0 61.722996 0
-0.20241432 64.126266 -11.874836 0 0 0 61.722996 0
-1.0473312 64.048607 -11.920444 0 0 0 68.381859 1.3333334
-1.563753 64.07328 -11.738414 0 0 0 49.714325 1
-1.8772495 64.00235 -11.692539 0 0 0 33.046959 1.5
-2.1867492 63.958931 -11.68654 0 0 0 31.379818 1
-8.7008905 62.93914 -12.667675 0 0 0 32.381775 2
-8.780509 63.020119 -12.642536 0 0 0 32.159805 2
-10.370247 62.660469 -12.65433 0 0 0 25.937796 18
-13.437023 62.456249 -12.208313 0 0 0 25.051832 1
-14.038352 62.393085 -12.234492 0 0 0 25.051832 1
-14.384912 62.176643 -12.117685 0 0 0 24.828911 2
2.4037609 64.835205 -12.072156 0 0 0 64.60881 0
1.7716496 64.710556 -12.082367 0 0 0 71.267845 0
1.6285377 64.581123 -12.003371 0 0 0 62.277912 0
0 0 0 0 0 0 0 0
-1.0615877 64.196297 -11.95337 0 0 0 68.603912 1
0 0 0 0 0 0 0 0
-1.9156963 64.192963 -11.725465 0 0 0 32.824989 1
-2.2389715 64.181519 -11.708001 0 0 0 30.8249 2
0.055566493 64.673897 -12.023017 0 0 0 63.942909 1
-0.21256123 64.663765 -11.982469 0 0 0 61.945915 0
-1.0752332 64.460045 -11.996592 0 0 0 69.344276 1.3333334
-1.6031154 64.386467 -11.823509 0 0 0 1.311779 2
-1.9446872 64.334869 -11.746565 0 0 0 32.455524 1.3333334
-2.2659416 64.304092 -11.745822 0 0 0 31.120857 2
-8.7988529 63.290585 -12.787495 0 0 0 28.16081 2
-10.368386 63.065483 -12.835736 0 0 0 26.160002 8
-8.803484 63.376225 -12.742911 0 0 0 30.271294 2
-8.8162556 63.309219 -12.686481 0 0 0 27.937889 1
-10.472458 63.16016 -12.771797 0 0 0 25.937796 14
-12.026817 62.942467 -12.418807 0 0 0 30.158997 1
-14.476739 62.664864 -12.228517 0 0 0 24.828911 2
0 0 0 0 0 0 0 0
0 0 0 0 0 0 0 0
0.34053081 64.891434 -12.082917 0 0 0 65.496284 0.33333334
0.060931958 64.911095 -12.045122 0 0 0 64.164879 0
-0.21370359 64.807083 -12.001937 0 0 0 62.056419 0
-1.9940641 64.60128 -11.818342 0 0 0 32.824993 2
-3.071512 64.429344 -11.721132 0 0 0 16.938925 7.5
-3.0810513 64.494026 -11.61974 0 0 0 15.828055 26.111111
-3.0591357 64.543945 -11.420737 0 0 0 13.804145 26.444445
-3.0288556 64.565758 -11.291347 0 0 0 12.459834 10
-8.8219299 63.477081 -12.812853 0 0 0 32.603977 3
-8.8392763 63.49572 -12.711599 0 0 0 32.381775 2
-12.261987 63.123886 -12.399543 0 0 0 30.158997 2
-12.392127 63.229206 -12.353776 0 0 0 29.93679 1
1.7218077 65.189438 -12.11188 0 0 0 62.388897 0
-1.1120486 64.810059 -12.078354 0 0 0 69.492821 1
-2.0359662 64.794991 -11.829513 0 0 0 31.825424 1.5
-10.401357 63.527897 -12.890686 0 0 0 26.160002 8
-12.314169 63.402756 -12.478729 0 0 0 26.603937 1
0 0 0 0 0 0 0 0
-0.22299412 65.27784 -12.096217 0 0 0 62.166927 0
-1.1426169 65.129044 -12.148463 0 0 0 69.714783 1
-1.7367885 65.114349 -11.862919 0 0 0 35.935879 1
-2.0862134 65.045631 -11.864824 0 0 0 31.268835 1.3333334
-8.9180784 63.865044 -12.898244 0 0 0 28.16081 2
-8.9337673 63.881947 -12.823024 0 0 0 28.049351 2
-10.558015 63.676273 -12.811622 0 0 0 25.864126 13
-12.027157 63.6133 -12.524975 0 0 0 25.272846 2
-12.185435 63.495342 -12.470603 0 0 0 30.158997 2
0.060331088 65.429901 -12.171653 0 0 0 64.164879 0
-1.1527704 65.234138 -12.171283 0 0 0 69.714622 1
-2.1169012 65.209656 -11.91331 0 0 0 31.713882 2
-9.038208 64.151611 -12.884053 0 0 0 32.603977 2
-12.612946 63.637207 -12.472716 0 0 0 26.603937 1
-1.1738679 65.435654 -12.218343 0 0 0 69.714783 2
-1.7939615 65.473381 -11.941639 0 0 0 36.157845 1
-10.461853 64.042717 -13.000204 0 0 0 27.715921 8
-10.479598 64.062172 -12.941831 0 0 0 27.715921 14
-10.559095 64.140633 -12.903558 0 0 0 27.493 17
-12.731318 63.924091 -12.524419 0 0 0 30.158997 2
0 0 0 0 0 0 0 0
-2.1875923 65.564095 -11.960761 0 0 0 30.8249 2
-10.544052 64.331604 -13.045677 0 0 0 31.825424 10
-9.0129299 64.44104 -12.941242 0 0 0 26.160002 3
-12.647813 64.111275 -12.602485 0 0 0 25.051832 2
0.06690713 66.099762 -12.284059 0 0 0 64.60881 0
-1.644238 65.861763 -12.221746 0 0 0 16.23559 4
-1.8625042 65.865471 -11.994247 0 0 0 33.379913 1
-10.668475 64.457588 -12.957062 0 0 0 31.602383 16
-1.664583 66.077606 -12.270248 0 0 0 17.050982 3
-1.8688767 65.913483 -12.016271 0 0 0 34.379959 1
-2.2490835 65.879547 -12.016717 0 0 0 30.491947 2
-3.1768787 65.846138 -12.099536 0 0 0 15.939265 14
-3.1821423 65.916237 -11.887974 0 0 0 13.607073 22.5
-3.1600723 65.936119 -11.732078 0 0 0 11.941818 16.846153
-10.37139 64.628029 -13.143276 0 0 0 32.159805 3
-10.564305 64.621269 -13.107914 0 0 0 27.715921 7
-10.682896 64.742699 -13.050839 0 0 0 27.604462 13.5
-12.944478 64.355087 -12.595448 0 0 0 25.051832 3
0 0 0 0 0 0 0 0
0 0 0 0 0 0 0 0
-1.6791617 66.181404 -12.293939 0 0 0 16.994774 3.125
-4.196023 65.84893 -12.255434 0 0 0 28.82695 4
-1.6544065 66.148338 -12.227065 0 0 0 61.834457 1
-3.1957195 65.914253 -12.05515 0 0 0 15.384316 19.5
-4.2027969 65.86306 -12.179737 0 0 0 28.33843 3
-3.192462 65.930473 -11.933899 0 0 0 14.05058 25.6
-10.408459 64.967178 -13.067986 0 0 0 27.715921 12
-10.581468 64.844086 -13.087885 0 0 0 31.936884 10
-13.458085 64.49337 -12.613473 0 0 0 29.93679 2
0 0 0 0 0 0 0 0
-1.6935679 66.354996 -12.331896 0 0 0 17.717838 3.5
-4.2215366 65.925301 -12.317469 0 0 0 29.04892 2
-2.3206167 66.248215 -12.077567 0 0 0 29.93679 3
-10.423332 65.170929 -13.218769 0 0 0 32.159805 4
-10.441234 65.193306 -13.099294 0 0 0 31.936884 13
-12.514328 64.970169 -12.79255 0 0 0 25.051832 11
-12.526733 64.989861 -12.71998 0 0 0 25.051832 18
-13.89213 64.611259 -12.686673 0 0 0 26.381969 3
-15.527493 64.528099 -12.5921 0 0 0 29.492855 16
-15.726331 64.423256 -12.532339 0 0 0 26.160002 9
-15.844796 64.525032 -12.408278 0 0 0 25.937796 9.5
-17.950338 64.224976 -12.422432 0 0 0 24.604797 2
-15.869381 64.575386 -12.217381 0 0 0 25.716782 9.5
-1.9660517 66.505119 -12.120393 0 0 0 32.603977 2
-2.3852398 66.581131 -12.15588 0 0 0 30.158997 2
-15.844891 64.595665 -12.018737 0 0 0 25.494814 6
-15.604671 64.707848 -11.889153 0 0 0 28.604984 5
-10.290588 65.361137 -13.168948 0 0 0 27.715921 8
-12.541461 65.01226 -12.648362 0 0 0 24.828911 20
-13.052385 64.941544 -12.66308 0 0 0 24.903219 17
-13.62074 64.899643 -12.672997 0 0 0 24.828911 5
-12.562429 65.051331 -12.502674 0 0 0 24.679502 18.666666
-13.079487 64.992104 -12.472241 0 0 0 24.604797 19
-15.662184 64.641403 -12.473906 0 0 0 29.271841 26
-15.683343 64.671753 -12.381229 0 0 0 29.271841 42
-15.677591 64.70195 -12.187686 0 0 0 29.04892 52
-15.687335 64.691246 -12.285707 0 0 0 29.04892 35
-15.641815 64.704872 -12.038043 0 0 0 28.826952 33.5
-2.4259233 66.793671 -12.176514 0 0 0 29.492855 2
-10.228928 65.4711 -13.141853 0 0 0 32.159805 9
-12.407703 65.390289 -12.860492 0 0 0 25.051832 19
-12.409603 65.405258 -12.749332 0 0 0 24.940372 20
-14.445575 65.040543 -12.724103 0 0 0 26.381969 7
-14.728019 64.967056 -12.706338 0 0 0 29.714823 10
-16.901497 64.649582 -12.584445 0 0 0 24.604797 12
-17.631252 64.557953 -12.597193 0 0 0 24.604797 7
-18.407276 64.46183 -12.611565 0 0 0 24.604797 2
-19.639498 64.289558 -12.557161 0 0 0 28.826952 9
-12.414245 65.428978 -12.602329 0 0 0 24.716854 16.5
-16.987507 64.720772 -12.494465 0 0 0 24.604797 25
-17.722685 64.640526 -12.447429 0 0 0 24.493813 23.5
-19.64872 64.316277 -12.434759 0 0 0 28.826952 16
-17.751278 64.687195 -12.286588 0 0 0 24.38283 21
-19.681877 64.367676 -12.254273 0 0 0 28.604984 24
-2.0285285 66.892296 -12.199224 0 0 0 32.381775 2
-2.4450645 66.89209 -12.224332 0 0 0 30.306816 3.3333333
-17.771494 64.719917 -12.179603 0 0 0 24.159908 9
-19.709782 64.417603 -12.072844 0 0 0 28.382778 8
-2.0439618 66.991608 -12.207689 0 0 0 31.157852 2.5
-15.070628 65.23259 -12.688025 0 0 0 29.714823 31
-19.397902 64.447502 -12.654778 0 0 0 24.604797 2
-19.407501 64.473831 -12.534171 0 0 0 24.604797 9
-19.542078 64.567604 -12.432493 0 0 0 24.38283 19
-2.5002685 67.174034 -12.277166 0 0 0 30.158997 3
-2.0650992 67.125374 -12.231185 0 0 0 30.75091 2.3333333
-2.4884522 67.119308 -12.232285 0 0 0 29.271841 3
-2.4971254 67.167213 -12.233987 0 0 0 29.04892 3
-14.891784 65.390511 -12.732234 0 0 0 26.160002 6
-15.176826 65.332726 -12.571411 0 0 0 29.492855 49.5
-15.170816 65.367508 -12.339451 0 0 0 29.271841 26
-15.192782 65.367638 -12.435946 0 0 0 29.271841 62
-19.672497 64.659866 -12.328452 0 0 0 24.38283 32
-15.14174 65.362755 -12.242383 0 0 0 29.04892 15
-2.0941694 67.316177 -12.259795 0 0 0 29.714823 2
-12.345948 65.86908 -12.991114 0 0 0 26.825905 8
-12.365553 65.904167 -12.84932 0 0 0 26.603937 6.5
-12.356078 65.913864 -12.700266 0 0 0 26.381969 5
-15.121453 65.585419 -12.643604 0 0 0 26.048899 7.5
-15.114149 65.618523 -12.413036 0 0 0 25.716782 2
-2.9756155 67.441315 -12.395978 0 0 0 30.602932 3
-2.986923 67.492653 -12.330518 0 0 0 29.382347 5.5
-19.488787 65.110992 -12.549121 0 0 0 24.38283 5
-3.0095954 67.589973 -12.390127 0 0 0 29.973906 3.6666667
-3.0045116 67.579018 -12.31578 0 0 0 28.90094 5
-12.487263 66.252716 -13.053782 0 0 0 30.8249 4
-12.451494 66.225975 -12.969507 0 0 0 30.8249 4
-3.0729816 67.870041 -12.443575 0 0 0 29.93679 3
-12.397778 66.477051 -13.133795 0 0 0 26.825905 5
-12.407462 66.498169 -13.026293 0 0 0 26.71492 4
-12.663081 66.439903 -12.952953 0 0 0 30.602932 3
-9.3689461 67.165359 -13.453811 0 0 0 28.16081 3.5
-12.399962 66.715965 -13.179905 0 0 0 31.046867 4
-9.3621836 67.159203 -13.531738 0 0 0 28.382778 3
-12.483716 66.808098 -13.130629 0 0 0 31.046867 5
-12.333384 66.997498 -13.245724 0 0 0 26.937366 4.5
-12.371932 67.052162 -13.111888 0 0 0 26.71492 2.5
-12.925346 67.026566 -13.057855 0 0 0 26.603937 3
-9.5685511 67.714394 -13.602969 0 0 0 33.712864 6
-12.32938 67.222992 -13.232614 0 0 0 31.268835 5
-12.417936 67.328011 -13.149987 0 0 0 31.046867 4.5
-2.3610983 69.007858 -12.591054 0 0 0 27.937889 3
-12.240103 67.511284 -13.351796 0 0 0 27.048826 5
-12.154055 67.423828 -13.254087 0 0 0 26.825905 3
-9.4740028 68.004173 -13.624514 0 0 0 28.2348 3
-12.451278 67.972565 -13.26771 0 0 0 31.268835 5
-9.5746059 68.394806 -13.671944 0 0 0 33.935783 6
-9.5853443 68.407372 -13.568519 0 0 0 33.712864 2
-9.5906429 68.933151 -13.836792 0 0 0 28.382778 4
-9.6062431 68.95192 -13.736418 0 0 0 28.16081 3
-9.6974926 69.305107 -13.836704 0 0 0 34.379959 5
-9.7042866 69.318588 -13.893922 0 0 0 34.379959 5
-10.614162 69.190147 -13.865916 0 0 0 33.490894 3
-10.624305 69.204086 -13.809813 0 0 0 33.268929 6
-10.87815 69.257523 -13.745806 0 0 0 27.493 4
-13.574987 69.009827 -13.374579 0 0 0 26.381969 4
-9.6831408 69.901054 -13.942288 0 0 0 28.16081 3
-9.7733688 70.050659 -14.037001 0 0 0 28.382778 3
-9.8048353 70.096062 -13.943753 0 0 0 28.16081 2
-10.929316 70.124046 -14.068286 0 0 0 27.937889 3
-10.973194 70.187981 -13.963795 0 0 0 27.715921 4
-6.4061971 71.978531 -8.8974667 0 0 0 1.311779 3
-6.4105492 72.128487 -8.8543758 0 0 0 1.092911 4
22.138351 76.002304 -13.689748 0 0 0 74.1539 18
22.632841 76.532822 -13.609016 0 0 0 74.1539 17
22.112518 76.524734 -13.676956 0 0 0 71.046829 25
22.644743 76.585754 -13.437271 0 0 0 74.37587 16
22.452847 76.911263 -13.567996 0 0 0 71.267845 31
21.539267 76.958916 -13.674973 0 0 0 71.046829 20
22.47757 76.978424 -13.399388 0 0 0 71.267845 12
22.094872 77.051552 -13.540005 0 0 0 74.37587 21
21.034241 76.880951 -13.869475 0 0 0 74.1539 34
21.08416 76.973534 -13.715907 0 0 0 74.1539 21
21.623764 77.089058 -13.523846 0 0 0 71.267845 18
21.926868 77.454147 -13.410361 0 0 0 71.267845 12
20.512766 77.34893 -13.963147 0 0 0 74.1539 29
20.947943 77.326492 -13.828597 0 0 0 71.046829 40
20.112196 77.405121 -13.917789 0 0 0 70.82486 31
20.613613 77.501572 -13.823833 0 0 0 74.1539 21
21.104944 77.540512 -13.696503 0 0 0 71.046829 43
21.099155 77.574554 -13.531136 0 0 0 71.267845 23
20.681974 77.618477 -13.676611 0 0 0 74.37587 12
-31.286516 70.5336 -13.180449 0 0 0 28.16081 14
20.49041 77.882721 -13.839977 0 0 0 71.046829 26
-31.230942 70.544769 -12.978819 0 0 0 28.16081 13
20.559931 78.003433 -13.69362 0 0 0 71.046829 15
-13.419656 73.192825 -14.262786 0 0 0 32.381775 4
-31.476948 70.715714 -12.809917 0 0 0 27.937889 9
20.920048 78.464615 -13.603117 0 0 0 71.267845 10
21.002552 78.60405 -13.455033 0 0 0 71.267845 5
-32.116348 71.095787 -12.676454 0 0 0 27.937889 12
-32.243176 71.207413 -12.488352 0 0 0 27.715921 12
-33.038052 71.674751 -12.355832 0 0 0 27.715921 8
-33.130116 71.771484 -12.157949 0 0 0 27.493 7
-31.881865 75.312492 -13.861943 0 0 0 25.051832 10
-31.887001 75.811874 -13.971253 0 0 0 28.382778 9
-31.888981 75.854958 -13.777545 0 0 0 28.382778 13
29.595495 85.758064 -14.314638 0 0 0 71.489815 21
-33.161053 76.858772 -13.344171 0 0 0 27.937889 8
29.671392 85.900871 -14.097627 0 0 0 71.711777 19
-34.323257 77.70472 -13.270232 0 0 0 27.937889 11
-32.160103 78.165901 -14.329819 0 0 0 28.604984 10
-32.615917 78.549721 -14.20226 0 0 0 28.382778 9
-32.185131 78.762123 -14.705956 0 0 0 25.272846 7
-32.204411 79.278046 -14.778376 0 0 0 28.826952 12
-32.336445 79.302162 -15.187365 0 0 0 29.04892 9
-32.410225 79.398575 -15.006151 0 0 0 28.826952 19
-33.735317 79.433205 -14.160396 0 0 0 28.382778 9
-32.961349 79.95433 -14.508084 0 0 0 28.604984 8
-34.671097 80.233162 -13.873805 0 0 0 28.16081 9
-35.874378 81.302002 -13.382016 0 0 0 27.715921 9
-12.463799 84.543411 -15.674245 0 0 0 37.7868 7.6666665
-12.498496 84.618172 -15.727278 0 0 0 37.93478 7
-12.524984 84.745811 -15.525939 0 0 0 37.416855 9
-12.525852 84.80545 -15.367581 0 0 0 37.045956 9
-34.89439 81.718529 -13.762573 0 0 0 27.937889 15
-12.619981 84.88208 -15.92399 0 0 0 38.156986 7
-12.544162 84.918015 -15.219079 0 0 0 36.82399 6
-21.561092 84.9394 -15.85377 0 0 0 31.046867 4
-21.546503 84.971939 -15.620488 0 0 0 30.8249 5
-26.904106 84.337242 -15.615211 0 0 0 29.714823 12
-19.667526 85.745361 -13.942275 0 0 0 29.714823 10
-19.560743 85.880989 -13.335457 0 0 0 29.04892 17
-19.53896 85.901634 -13.234776 0 0 0 28.826952 10
-28.148375 84.30954 -15.875331 0 0 0 29.714823 14
-20.736387 85.230072 -15.79679 0 0 0 31.268835 4
-20.816319 85.418083 -15.548844 0 0 0 31.046867 7
-21.728321 85.372139 -15.155958 0 0 0 30.380964 8
-20.78986 85.538513 -15.002134 0 0 0 30.491947 9.5
-21.688814 85.36779 -14.975046 0 0 0 30.158997 14
-20.715473 85.499184 -14.769138 0 0 0 30.269981 7.5
-21.651871 85.370079 -14.79583 0 0 0 30.047894 7.5
-26.988041 84.747452 -14.427075 0 0 0 28.826952 18
-19.667244 85.817848 -13.795432 0 0 0 29.492855 13.5
-19.64315 85.880501 -13.595003 0 0 0 29.271841 18.5
-19.610916 85.90786 -13.442512 0 0 0 29.04892 25
-20.606983 85.906693 -13.430391 0 0 0 28.826952 26
-20.516241 85.877335 -13.206219 0 0 0 28.604984 10
-20.48501 85.88607 -13.097243 0 0 0 28.604984 7
-27.850386 84.928528 -12.68001 0 0 0 27.493 6
-20.020647 85.618309 -16.002829 0 0 0 31.825424 17.5
-20.055807 85.709511 -15.858537 0 0 0 31.713963 18
-20.865816 85.450241 -15.726542 0 0 0 31.268835 6
-28.183125 84.380768 -15.722707 0 0 0 29.714823 18
-29.429821 84.372826 -15.631861 0 0 0 29.492855 22
-28.178823 84.411766 -15.561933 0 0 0 29.492855 29
-20.050907 85.812057 -15.4448 0 0 0 31.268835 41
-20.848473 85.511024 -15.395406 0 0 0 30.8249 8
-20.019463 85.809212 -15.282264 0 0 0 31.046867 24.5
-20.844782 85.553284 -15.232114 0 0 0 30.713917 8
-19.970205 85.797806 -15.064891 0 0 0 30.8249 24
-19.91914 85.788284 -14.848849 0 0 0 30.602932 26
-29.409698 84.556 -14.789292 0 0 0 28.826952 29
-30.572557 84.388283 -14.778926 0 0 0 28.826952 22
-28.252247 84.825584 -14.303207 0 0 0 28.604984 29
-29.304558 84.585899 -14.271646 0 0 0 28.604984 29
-30.395193 84.35495 -14.2269 0 0 0 28.382778 21
-20.743584 85.934937 -13.823566 0 0 0 29.271841 14.5
-20.694845 85.936127 -13.65626 0 0 0 29.04892 19
-21.617369 85.790581 -13.611061 0 0 0 28.826952 13
-18.843561 86.21479 -13.561566 0 0 0 29.492855 6
-20.65571 85.928024 -13.543785 0 0 0 29.04892 29
-21.581205 85.843964 -13.382294 0 0 0 28.604984 21
-21.599785 85.817192 -13.496428 0 0 0 28.826952 18
-26.925354 85.137627 -13.074557 0 0 0 27.937889 12
-26.952559 85.112076 -13.226978 0 0 0 27.937889 10
-26.891653 85.157364 -12.9221 0 0 0 27.715921 9
-30.278997 84.741158 -12.657873 0 0 0 27.493 9
-38.45092 83.933975 -11.369377 0 0 0 26.603937 60
-29.44454 84.351479 -15.803782 0 0 0 29.492855 12
-20.076826 85.768295 -15.761711 0 0 0 31.490803 19
-30.686987 84.291405 -15.681235 0 0 0 29.271841 12
-20.08234 85.803894 -15.660013 0 0 0 31.490803 22
-27.341505 84.862961 -15.560369 0 0 0 29.714823 36
-28.324574 84.605217 -15.432451 0 0 0 29.492855 36
-29.477295 84.459702 -15.473269 0 0 0 29.271841 39
-30.713533 84.356613 -15.509226 0 0 0 29.271841 14
-12.117946 87.128342 -15.525569 0 0 0 39.711952 10
-20.076468 85.822968 -15.555264 0 0 0 31.268835 22
-27.338142 84.895821 -15.406356 0 0 0 29.492855 26
-28.374626 84.69767 -15.282486 0 0 0 29.271841 32
-29.468475 84.489922 -15.303023 0 0 0 29.271841 32
-30.659615 84.344254 -15.322309 0 0 0 29.04892 15
-12.082442 87.101624 -15.392665 0 0 0 39.379951 13.5
-27.291588 84.900879 -15.167064 0 0 0 29.382347 27
-28.407488 84.772881 -15.128485 0 0 0 29.271841 29
-29.472115 84.534615 -15.135859 0 0 0 29.04892 26
-30.680851 84.407051 -15.149697 0 0 0 29.04892 22
-12.087591 87.223518 -15.235382 0 0 0 38.935902 12
-27.22975 84.891258 -14.925836 0 0 0 29.271841 21
-28.428244 84.836792 -14.97237 0 0 0 29.04892 47
-29.436054 84.539513 -14.961207 0 0 0 29.04892 25
-30.62159 84.39212 -14.963159 0 0 0 28.826952 21
-12.008283 87.183708 -14.975334 0 0 0 38.453262 9.333333
-28.421049 84.871712 -14.810693 0 0 0 29.04892 33
-11.996821 87.312553 -14.795319 0 0 0 38.045883 9
-11.96505 87.332558 -14.673393 0 0 0 37.712811 11
-37.137207 84.136177 -11.837098 0 0 0 26.825905 22
-38.52634 83.843468 -11.831506 0 0 0 26.825905 14
-37.112671 84.18911 -11.616064 0 0 0 26.825905 19
-38.489552 83.888542 -11.600099 0 0 0 26.825905 34
-12.024154 87.345436 -14.850617 0 0 0 38.045883 10
-11.955608 87.421745 -14.562709 0 0 0 37.490845 11
-11.927931 87.491043 -14.424471 0 0 0 37.045956 13
-13.252377 87.426605 -14.423694 0 0 0 34.379959 9
-11.851554 87.543884 -14.187017 0 0 0 36.601784 6
-13.310249 87.476151 -14.548576 0 0 0 34.601929 7
-19.189598 86.696625 -13.822262 0 0 0 29.714823 6
-19.677099 87.098808 -14.799578 0 0 0 30.602932 8
-19.923109 87.160698 -15.859798 0 0 0 31.713963 14
-19.880651 87.134491 -15.696115 0 0 0 31.602383 14
-19.835602 87.122833 -15.483073 0 0 0 31.379818 17
-19.834572 87.1894 -15.28463 0 0 0 31.157852 16
-19.814934 87.211174 -15.13088 0 0 0 31.046867 13
-19.961573 87.121025 -16.276993 0 0 0 32.159805 13
-19.968292 87.181175 -16.076204 0 0 0 31.936884 13
-19.955267 87.186096 -15.970772 0 0 0 31.936884 18
-33.664825 88.303314 -12.626719 0 0 0 27.26984 16
-33.622482 88.333931 -12.432327 0 0 0 27.048826 25
-19.588236 90.455421 -14.778976 0 0 0 13.273954 8
-19.919291 90.964729 -15.056661 0 0 0 13.494968 7
-33.648087 89.882439 -12.700591 0 0 0 27.26984 24
-33.618004 89.927193 -12.509117 0 0 0 27.048826 24
-34.047707 91.928719 -13.004199 0 0 0 27.26984 19
-34.019695 91.97654 -12.811971 0 0 0 27.26984 36
20.267567 100.59734 -18.265684 0 0 0 69.492821 19
20.256399 100.62755 -18.081984 0 0 0 69.492821 18
20.251966 100.67553 -17.901628 0 0 0 69.714783 9
-34.239445 93.860947 -13.285703 0 0 0 27.493 24
-34.137402 93.824257 -13.086905 0 0 0 27.26984 19
-34.185215 93.963043 -12.903721 0 0 0 27.26984 29
19.226494 100.93188 -18.763649 0 0 0 69.047928 21
19.283752 101.17223 -18.444109 0 0 0 69.269897 25
7.8467541 99.449532 -18.285053 0 0 0 65.274002 7
19.256769 101.161 -18.259026 0 0 0 69.269897 20
18.113871 101.11359 -19.162151 0 0 0 68.603989 26
18.104746 101.17646 -18.824049 0 0 0 68.825958 46
8.9624109 99.815224 -18.566889 0 0 0 65.718887 13
18.084227 101.17093 -18.647894 0 0 0 68.825958 45
10.04129 100.00492 -18.39422 0 0 0 66.605804 9
8.9566126 99.828972 -18.460386 0 0 0 65.940857 14
7.9039745 99.731644 -18.441322 0 0 0 65.274002 9
18.064121 101.16872 -18.472757 0 0 0 69.047928 33
8.949872 99.86879 -18.304213 0 0 0 66.051842 10.5
18.034245 101.14432 -18.293745 0 0 0 69.047928 17
8.9393988 99.896812 -18.145866 0 0 0 66.162827 7
7.8995967 99.868599 -18.162386 0 0 0 65.495972 11
19.325512 101.38681 -18.117464 0 0 0 69.492821 20
19.336882 101.53889 -17.777985 0 0 0 69.714783 17
8.990468 100.21917 -18.09691 0 0 0 66.384789 11
7.8971381 99.915291 -18.069603 0 0 0 65.718887 13
20.749887 101.88666 -17.925695 0 0 0 69.714783 18
19.379364 101.57996 -17.968657 0 0 0 69.492821 18
19.3599 101.66239 -17.615952 0 0 0 69.714783 18
16.966833 101.51376 -18.357317 0 0 0 68.825958 17
17.057272 101.56979 -19.03899 0 0 0 68.381783 51
17.038774 101.56255 -18.869383 0 0 0 68.603989 59
17.004372 101.51445 -18.692122 0 0 0 68.603989 40
16.996859 101.54382 -18.530252 0 0 0 68.825958 21
20.891563 102.27973 -17.799858 0 0 0 69.936989 31
20.978291 102.54989 -17.650595 0 0 0 69.936989 28
7.0117316 100.63423 -18.418341 0 0 0 64.60881 11
10.263132 101.13094 -18.37221 0 0 0 66.827774 10
6.9933062 100.64019 -18.227243 0 0 0 64.83078 12
21.048044 102.78374 -17.493647 0 0 0 70.158958 27
9.1619434 101.20376 -18.111977 0 0 0 66.4953 13
8.0806828 101.09116 -18.132547 0 0 0 65.829872 11.5
9.1470089 101.23387 -17.949945 0 0 0 66.605804 9
8.0516434 101.07249 -17.92144 0 0 0 66.051842 11
8.0417633 101.13879 -17.777674 0 0 0 66.162827 10
7.0371161 101.04332 -18.15756 0 0 0 65.051796 15
10.322347 101.59295 -18.09753 0 0 0 67.04998 8
7.0177436 101.07413 -17.970078 0 0 0 65.274002 12
9.1554174 101.43488 -17.762146 0 0 0 66.827774 8
8.0328407 101.26701 -17.592722 0 0 0 66.384789 8
10.359542 101.63501 -18.346153 0 0 0 66.827774 13
10.360217 101.70059 -18.237616 0 0 0 67.04998 11
17.359402 102.79766 -18.083059 0 0 0 69.269897 16
10.333854 101.71606 -17.999344 0 0 0 67.27195 9
7.0219674 101.32995 -17.774031 0 0 0 65.495972 9
7.1335783 101.38873 -18.660465 0 0 0 64.60881 12
18.751217 103.20525 -18.13385 0 0 0 69.492821 17
10.387442 102.03967 -17.935785 0 0 0 67.27195 8
7.0515356 101.62874 -17.72917 0 0 0 65.718887 8
7.0679727 101.8458 -17.669079 0 0 0 65.718887 10
7.0401878 101.82188 -17.519302 0 0 0 65.940857 7
7.151525 102.11088 -18.008741 0 0 0 65.495972 11
17.66888 103.80934 -17.913 0 0 0 69.492821 20
18.935471 103.90519 -17.707853 0 0 0 69.714783 21
19.011532 104.18423 -17.570515 0 0 0 69.936989 23
17.746222 104.10354 -17.788185 0 0 0 69.492821 27
19.104223 104.51165 -17.439064 0 0 0 69.936989 20
17.810499 104.36423 -17.656248 0 0 0 69.714783 17
7.2042933 103.2496 -17.508965 0 0 0 66.162827 13
7.2316217 103.56857 -17.460775 0 0 0 66.384789 13
9.646553 104.26964 -17.901096 0 0 0 67.27195 10
7.2685437 103.96206 -17.423094 0 0 0 66.384789 15
8.5002422 104.24016 -17.881264 0 0 0 66.605804 10
9.6525717 104.45758 -17.75527 0 0 0 67.382935 15
8.4664326 104.32739 -17.621687 0 0 0 66.938873 13.5
7.2861447 104.22648 -17.364023 0 0 0 66.605804 17
7.2693491 104.26015 -17.268328 0 0 0 66.605804 17
8.4635277 104.56203 -17.439985 0 0 0 67.160965 16.5
7.260006 104.34841 -17.181154 0 0 0 66.827774 16
7.2495613 104.51797 -17.055534 0 0 0 66.938873 11.5
9.6885738 104.81236 -17.635386 0 0 0 67.493919 17
9.6950274 104.96213 -17.54072 0 0 0 67.715881 19
8.4780178 104.85104 -17.320374 0 0 0 67.27195 14
7.2144256 104.61185 -16.868034 0 0 0 67.160965 9
9.6996078 105.10809 -17.444887 0 0 0 67.715881 18
8.469655 104.94086 -17.224314 0 0 0 67.493919 14
9.6835909 105.27924 -17.233799 0 0 0 67.938805 13
8.4507494 105.04818 -17.07576 0 0 0 67.604904 11.5
11.039055 105.52163 -17.900391 0 0 0 67.938805 14
9.7086496 105.28111 -17.352844 0 0 0 67.938805 16
9.6703453 105.34324 -17.124861 0 0 0 68.159821 11
11.027582 105.6813 -17.668697 0 0 0 68.159821 16
10.991495 105.86398 -17.311443 0 0 0 68.381783 14
11.03391 105.82487 -17.56249 0 0 0 68.159821 17
11.018988 105.87154 -17.441063 0 0 0 68.381783 12
7.1685815 108.34015 -15.560352 0 0 0 69.047928 17
7.1035409 108.29308 -15.40089 0 0 0 69.269897 19.5
7.0433245 108.29301 -15.247254 0 0 0 69.492821 23
7.0016298 108.28884 -15.144816 0 0 0 69.492821 21
6.9412198 108.30785 -14.99444 0 0 0 69.714783 22.5
8.5849943 108.68707 -15.938996 0 0 0 69.269897 16
8.5431881 108.66232 -15.822796 0 0 0 69.269897 19
7.2869983 108.3778 -15.875704 0 0 0 68.825958 11
8.491375 108.70332 -15.658102 0 0 0 69.492821 20
7.2091446 108.35548 -15.665441 0 0 0 69.047928 16
8.4185925 108.75096 -15.438447 0 0 0 69.714783 24.5
8.3628531 108.79119 -15.27477 0 0 0 69.936989 22
8.6618948 108.70862 -16.169207 0 0 0 69.047928 12
8.6234035 108.69601 -16.05368 0 0 0 69.047928 14
9.8344288 109.12775 -15.686876 0 0 0 69.936989 20
9.7942009 109.13208 -15.565067 0 0 0 69.936989 21
9.9220304 109.17342 -15.937739 0 0 0 69.714783 18
9.8792238 109.15464 -15.812544 0 0 0 69.714783 23
